# .PCD v0.7 - Point Cloud Data file format
VERSION 0.7
FIELDS x y z rgba
SIZE 4 4 4 4
TYPE F F F U
COUNT 1 1 1 1
WIDTH 1114
HEIGHT 1
VIEWPOINT 0 0 0 0 1 0 0
POINTS 1114
DATA ascii
-0.11259429 0.13448763 0.82100004 3481402
-0.10946666 0.13448763 0.82100004 2958909
-0.10321143 0.13448763 0.82100004 3020839
-0.11259429 0.13761523 0.82100004 2891322
-0.10633905 0.13761523 0.82100004 2169655
-0.10321143 0.13761523 0.82100004 3609910
-0.10008381 0.13761523 0.82100004 2560585
-0.096956201 0.13761523 0.82100004 2038324
-0.093828574 0.13761523 0.82100004 1382189
-0.090700962 0.13761523 0.82100004 2036013
-0.10008381 0.14074287 0.82100004 1708598
-0.096956201 0.14074287 0.82100004 2233904
-0.093828574 0.14074287 0.82100004 659734
-0.090700962 0.14074287 0.82100004 1380647
-0.087573335 0.14074287 0.82100004 1642542
-0.084445722 0.14074287 0.82100004 1380648
-0.10008381 0.14387049 0.82100004 2431021
-0.096956201 0.14387049 0.82100004 2036526
-0.093828574 0.14387049 0.82100004 1971753
-0.090700962 0.14387049 0.82100004 1970478
-0.10321143 0.14699811 0.82100004 2891817
-0.10008381 0.14699811 0.82100004 2562862
-0.096956201 0.14699811 0.82100004 2365507
-0.093828574 0.14699811 0.82100004 2233905
-0.090700962 0.14699811 0.82100004 2101552
-0.12510476 0.15012571 0.82100004 3942470
-0.12197714 0.15012571 0.82100004 3483704
-0.10946666 0.15012571 0.82100004 2823478
-0.10633905 0.15012571 0.82100004 2561334
-0.12510476 0.15325333 0.82100004 3614279
-0.12197714 0.15325333 0.82100004 2762551
-0.11884953 0.15325333 0.82100004 3219780
-0.11259429 0.15325333 0.82100004 2758458
-0.1157219 0.15638097 0.82100004 2824505
-0.11259429 0.15638097 0.82100004 2758464
-0.10946666 0.15638097 0.82100004 2363963
-0.10633905 0.15638097 0.82100004 2037811
-0.10321143 0.15638097 0.82100004 2756652
-0.10008381 0.15638097 0.82100004 2035758
-0.096956201 0.15950857 0.82100004 1446441
-0.093828574 0.15950857 0.82100004 1576744
-0.093828574 0.16263619 0.82100004 987689
-0.087573335 0.16263619 0.82100004 1313834
-0.071935244 0.16263619 0.82100004 1117456
-0.075062856 0.16576381 0.82100004 789540
-0.071935244 0.16576381 0.82100004 1314078
-0.068807617 0.16576381 0.82100004 2229801
-0.065680005 0.16576381 0.82100004 985121
-0.062552378 0.16576381 0.82100004 920364
-0.062552378 0.16889144 0.82100004 591651
-0.059424765 0.16889144 0.82100004 1967657
-0.056297146 0.16889144 0.82100004 919868
-0.053169526 0.16889144 0.82100004 722724
-0.025020953 0.16889144 0.82100004 394019
-0.021893334 0.16889144 0.82100004 656666
-0.053169526 0.17201905 0.82100004 591125
-0.050041907 0.17201905 0.82100004 919073
-0.046914287 0.17201905 0.82100004 1574172
-0.043786667 0.17201905 0.82100004 789010
-0.040659048 0.17201905 0.82100004 788501
-0.037531428 0.17201905 0.82100004 1180966
-0.034403808 0.17201905 0.82100004 984346
-0.031276189 0.17201905 0.82100004 722975
-0.028148573 0.17201905 0.82100004 1574182
-0.018765714 0.17201905 0.82100004 263447
-0.015638094 0.17201905 0.82100004 787732
-0.012510477 0.17201905 0.82100004 1573674
-0.037531428 0.17514667 0.82100004 66579
-0.034403808 0.17514667 0.82100004 918545
-0.031276189 0.17514667 0.82100004 394029
-0.028148573 0.17514667 0.82100004 918293
-0.012510477 0.17514667 0.82100004 853263
-0.009382857 0.17514667 0.82100004 591633
-0.0062552383 0.17514667 0.82100004 721951
-0.0031276192 0.17514667 0.82100004 918030
0 0.17514667 0.82100004 132623
0.018765714 0.17514667 0.82100004 919301
0.025020953 0.17514667 0.82100004 591625
0.19438477 -0.084651433 0.82300001 7155761
0.13795048 -0.081516191 0.82300001 5059127
0.14108571 -0.081516191 0.82300001 4739397
0.15362667 -0.081516191 0.82300001 4871245
0.050163809 -0.078380957 0.82300001 7629678
0.078380957 -0.078380957 0.82300001 5855067
0.081516191 -0.078380957 0.82300001 6053204
0.087786667 -0.078380957 0.82300001 7101533
0.03448762 -0.075245716 0.82300001 6572134
0.037622858 -0.075245716 0.82300001 6443619
-0.059569523 0.050163809 0.82300001 4140144
-0.056434285 0.050163809 0.82300001 5393021
-0.053299047 0.050163809 0.82300001 6313343
-0.050163809 0.050163809 0.82300001 3550567
-0.047028571 0.050163809 0.82300001 3483242
-0.040758096 0.050163809 0.82300001 5848696
-0.037622858 0.050163809 0.82300001 4665455
-0.03448762 0.050163809 0.82300001 5453431
-0.094057143 0.053299047 0.82300001 7031940
-0.090921909 0.053299047 0.82300001 6442369
-0.087786667 0.053299047 0.82300001 6049149
-0.084651433 0.053299047 0.82300001 5654651
-0.14422096 0.056434285 0.82300001 16711422
-0.13795048 0.056434285 0.82300001 9929397
-0.13481523 0.056434285 0.82300001 10781888
-0.14108571 0.13481523 0.82300001 6043232
-0.13795048 0.13481523 0.82300001 5519460
-0.13168001 0.13481523 0.82300001 5123419
-0.12854476 0.13481523 0.82300001 4730961
-0.12854476 0.13795048 0.82300001 4206414
-0.12540953 0.13795048 0.82300001 3616586
-0.12227429 0.13795048 0.82300001 2698058
-0.11913905 0.13795048 0.82300001 3483735
-0.11600381 0.13795048 0.82300001 3087937
-0.10973334 0.13795048 0.82300001 2628152
-0.11600381 0.14108571 0.82300001 1254976
-0.11286857 0.14108571 0.82300001 2760763
-0.10346286 0.14108571 0.82300001 2628145
-0.11286857 0.14422096 0.82300001 3482701
-0.10973334 0.14422096 0.82300001 2761534
-0.10659809 0.14422096 0.82300001 2499120
-0.10346286 0.14422096 0.82300001 2170405
-0.12854476 0.14735618 0.82300001 4140880
-0.12540953 0.14735618 0.82300001 4074570
-0.12227429 0.14735618 0.82300001 3876678
-0.11913905 0.14735618 0.82300001 3614271
-0.11600381 0.14735618 0.82300001 4399166
-0.11286857 0.14735618 0.82300001 3349801
-0.10973334 0.14735618 0.82300001 2957114
-0.10659809 0.14735618 0.82300001 2432564
-0.13168001 0.15049143 0.82300001 4468053
-0.12854476 0.15049143 0.82300001 4074061
-0.11913905 0.15049143 0.82300001 3351600
-0.11600381 0.15049143 0.82300001 2956088
-0.11286857 0.15049143 0.82300001 3021106
-0.13795048 0.15362667 0.82300001 4666975
-0.13481523 0.15362667 0.82300001 5517145
-0.13168001 0.15362667 0.82300001 4664133
-0.12854476 0.15362667 0.82300001 4007757
-0.12540953 0.15676191 0.82300001 3482691
-0.12227429 0.15676191 0.82300001 4594741
-0.11913905 0.15676191 0.82300001 3349820
-0.11913905 0.15989713 0.82300001 2629182
-0.11600381 0.15989713 0.82300001 2692921
-0.11286857 0.15989713 0.82300001 2365001
-0.10973334 0.15989713 0.82300001 2493729
-0.10659809 0.15989713 0.82300001 2232878
-0.10346286 0.15989713 0.82300001 3084334
-0.10032762 0.15989713 0.82300001 201513
-0.10346286 0.16303238 0.82300001 2233416
-0.097192384 0.16303238 0.82300001 1445933
-0.090921909 0.16303238 0.82300001 1707303
-0.094057143 0.16616762 0.82300001 3345708
-0.090921909 0.16616762 0.82300001 2034225
-0.087786667 0.16616762 0.82300001 1116462
-0.084651433 0.16616762 0.82300001 723250
-0.081516191 0.16616762 0.82300001 920622
-0.078380957 0.16616762 0.82300001 790062
-0.065840006 0.16930287 0.82300001 854299
-0.062704764 0.17243809 0.82300001 657424
-0.059569523 0.17243809 0.82300001 1049370
-0.056434285 0.17243809 0.82300001 918557
-0.025081905 0.17243809 0.82300001 328732
-0.021946667 0.17243809 0.82300001 1508378
-0.050163809 0.17557333 0.82300001 918805
-0.047028571 0.17557333 0.82300001 985122
-0.043893334 0.17557333 0.82300001 67100
-0.040758096 0.17557333 0.82300001 919059
-0.021946667 0.17557333 0.82300001 1114894
-0.018811429 0.17557333 0.82300001 787722
-0.015676191 0.17557333 0.82300001 721934
0.19485715 -0.088000007 0.82500005 7486782
0.18228573 -0.084857151 0.82500005 5265482
0.18542857 -0.084857151 0.82500005 5853769
0.18857144 -0.084857151 0.82500005 9452873
0.1917143 -0.084857151 0.82500005 10433605
0.088000007 -0.081714287 0.82500005 5921863
0.12571429 -0.081714287 0.82500005 5985119
0.13514286 -0.081714287 0.82500005 4995677
0.16657144 -0.081714287 0.82500005 4666199
0.1697143 -0.081714287 0.82500005 5586759
0.17285715 -0.081714287 0.82500005 5198131
0.028285714 -0.078571431 0.82500005 11089741
0.031428572 -0.078571431 0.82500005 11485794
0.044000003 -0.078571431 0.82500005 6311783
0.04714286 -0.078571431 0.82500005 6575463
0.056571428 -0.078571431 0.82500005 6120542
0.059714291 -0.078571431 0.82500005 6186075
0.062857144 -0.078571431 0.82500005 7300697
0.066 -0.078571431 0.82500005 6510690
0.069142863 -0.078571431 0.82500005 6243937
0.075428575 -0.078571431 0.82500005 6047319
0.084857151 -0.078571431 0.82500005 7167063
0 0.04714286 0.82500005 6641036
0.0031428572 0.04714286 0.82500005 6576012
0.0062857145 0.04714286 0.82500005 7166875
0.012571429 0.04714286 0.82500005 6641036
-0.062857144 0.050285716 0.82500005 3287912
-0.044000003 0.050285716 0.82500005 7688820
-0.028285714 0.050285716 0.82500005 4405374
-0.012571429 0.050285716 0.82500005 4473727
-0.0094285719 0.050285716 0.82500005 5392511
-0.12571429 0.053428572 0.82500005 9401001
-0.11000001 0.053428572 0.82500005 7626387
-0.10685714 0.053428572 0.82500005 6380947
-0.10371429 0.053428572 0.82500005 6838671
-0.10057143 0.053428572 0.82500005 6837900
-0.097428575 0.053428572 0.82500005 6640778
-0.14142859 0.056571428 0.82500005 12954102
-0.15085715 0.12885715 0.82500005 16711422
-0.15085715 0.132 0.82500005 16711422
-0.14457142 0.13514286 0.82500005 4198750
-0.13828573 0.13828573 0.82500005 5323108
-0.132 0.13828573 0.82500005 4992854
-0.12885715 0.14142859 0.82500005 2763081
-0.12571429 0.14142859 0.82500005 3877189
-0.12257144 0.14142859 0.82500005 3614534
-0.11942858 0.14142859 0.82500005 2893128
-0.11000001 0.14142859 0.82500005 2562357
-0.10685714 0.14142859 0.82500005 1842225
-0.12885715 0.14457142 0.82500005 4141133
-0.12571429 0.14457142 0.82500005 4532801
-0.12257144 0.14457142 0.82500005 3550014
-0.11942858 0.14457142 0.82500005 3287090
-0.11628572 0.14457142 0.82500005 3155774
-0.132 0.14771429 0.82500005 4666197
-0.14457142 0.15085715 0.82500005 5381449
-0.14142859 0.15085715 0.82500005 5257058
-0.13828573 0.15085715 0.82500005 4535401
-0.13514286 0.15085715 0.82500005 5123165
-0.14142859 0.15400001 0.82500005 5387874
-0.14142859 0.15714286 0.82500005 5387362
-0.13828573 0.15714286 0.82500005 4993370
-0.13514286 0.15714286 0.82500005 4532568
-0.132 0.15714286 0.82500005 4727887
-0.12885715 0.15714286 0.82500005 3874894
-0.12257144 0.16028571 0.82500005 2957372
-0.11000001 0.16342857 0.82500005 2169134
-0.10685714 0.16342857 0.82500005 2167086
-0.10057143 0.16342857 0.82500005 1379633
-0.097428575 0.16657144 0.82500005 1642549
-0.075428575 0.1697143 0.82500005 724002
-0.069142863 0.1697143 0.82500005 1051414
-0.069142863 0.17285715 0.82500005 985370
-0.066 0.17285715 0.82500005 1116951
-0.062857144 0.17600001 0.82500005 330261
-0.059714291 0.17600001 0.82500005 1115425
-0.056571428 0.17600001 0.82500005 1312015
-0.053428572 0.17600001 0.82500005 132623
-0.025142858 0.17600001 0.82500005 787220
0.17642666 -0.085062861 0.82700002 4413001
0.17957714 -0.085062861 0.82700002 5330518
0.044106666 -0.081912383 0.82700002 6113117
0.12916952 -0.081912383 0.82700002 5322835
0.13232 -0.081912383 0.82700002 5124436
0.1449219 -0.081912383 0.82700002 5068367
0.15122285 -0.081912383 0.82700002 5264199
0.034655239 -0.078761905 0.82700002 7621479
0.040956192 -0.078761905 0.82700002 6246249
0.053558096 -0.078761905 0.82700002 6579287
0.09136381 -0.078761905 0.82700002 7229035
0.094514288 -0.078761905 0.82700002 7615835
0.097664766 -0.078761905 0.82700002 8663128
0.10081524 -0.078761905 0.82700002 9385564
-0.034655239 0.047257144 0.82700002 4663921
-0.031504765 0.047257144 0.82700002 5322869
-0.028354287 0.047257144 0.82700002 4666489
-0.0031504761 0.047257144 0.82700002 6049668
0.0094514284 0.047257144 0.82700002 6903697
0.015752383 0.047257144 0.82700002 6248327
-0.09136381 0.050407618 0.82700002 6114931
-0.088213332 0.050407618 0.82700002 5590399
-0.085062861 0.050407618 0.82700002 5458044
-0.081912383 0.050407618 0.82700002 4995705
-0.075611427 0.050407618 0.82700002 5384837
-0.072460949 0.050407618 0.82700002 4141171
-0.069310479 0.050407618 0.82700002 4534637
-0.066160001 0.050407618 0.82700002 3943276
-0.025203809 0.050407618 0.82700002 4208243
-0.022053333 0.050407618 0.82700002 4734063
-0.018902857 0.050407618 0.82700002 6045301
-0.015752383 0.050407618 0.82700002 5193596
-0.1449219 0.053558096 0.82700002 16711422
-0.14177142 0.053558096 0.82700002 16706046
-0.13232 0.053558096 0.82700002 10388915
-0.12916952 0.053558096 0.82700002 10059694
-0.12286858 0.053558096 0.82700002 8941221
-0.1197181 0.053558096 0.82700002 8678814
-0.11656762 0.053558096 0.82700002 8414362
-0.11341715 0.053558096 0.82700002 8152727
-0.14807238 0.12916952 0.82700002 13544702
-0.14807238 0.13232 0.82700002 15781118
-0.15122285 0.13547048 0.82700002 16711422
-0.14807238 0.13547048 0.82700002 16707070
-0.14177142 0.13862096 0.82700002 5322339
-0.13547048 0.13862096 0.82700002 5909855
-0.13547048 0.14177142 0.82700002 4730969
-0.13232 0.14177142 0.82700002 4074832
-0.13862096 0.1449219 0.82700002 5321823
-0.13547048 0.1449219 0.82700002 5059930
-0.13232 0.1449219 0.82700002 4665173
-0.1449219 0.14807238 0.82700002 5381210
-0.14177142 0.14807238 0.82700002 5585251
-0.13862096 0.14807238 0.82700002 5191006
-0.13547048 0.14807238 0.82700002 5124940
-0.14807238 0.15437335 0.82700002 8479695
-0.1449219 0.15437335 0.82700002 5249598
-0.14807238 0.15752381 0.82700002 10975471
-0.1449219 0.15752381 0.82700002 4265505
-0.13862096 0.16067429 0.82700002 4532821
-0.13547048 0.16067429 0.82700002 4271188
-0.13232 0.16067429 0.82700002 4138830
-0.12916952 0.16067429 0.82700002 4072774
-0.12601906 0.16067429 0.82700002 3089467
-0.12601906 0.16382477 0.82700002 3024443
-0.12286858 0.16382477 0.82700002 2564165
-0.1197181 0.16382477 0.82700002 2692927
-0.11656762 0.16382477 0.82700002 2300727
-0.11341715 0.16382477 0.82700002 1712697
-0.1197181 0.16697524 0.82700002 2890809
-0.11656762 0.16697524 0.82700002 2955321
-0.11026667 0.16697524 0.82700002 2036015
-0.10711619 0.16697524 0.82700002 2626325
-0.10396571 0.16697524 0.82700002 2099758
-0.10081524 0.16697524 0.82700002 1510703
-0.094514288 0.17012572 0.82700002 1838892
-0.09136381 0.17012572 0.82700002 1771310
-0.088213332 0.17012572 0.82700002 1378605
-0.085062861 0.17012572 0.82700002 1378086
-0.081912383 0.17012572 0.82700002 919082
-0.078761905 0.17012572 0.82700002 395042
-0.072460949 0.17012572 0.82700002 1313819
-0.088213332 0.17327619 0.82700002 1509932
-0.085062861 0.17327619 0.82700002 2688552
-0.081912383 0.17327619 0.82700002 1639726
-0.078761905 0.17327619 0.82700002 2688546
-0.075611427 0.17327619 0.82700002 1115949
-0.072460949 0.17327619 0.82700002 789017
-0.069310479 0.17642666 0.82700002 1574165
-0.066160001 0.17642666 0.82700002 1705519
0.15474667 -0.085268572 0.82900006 5591644
0.17369524 -0.085268572 0.82900006 5001813
0.04105524 -0.082110479 0.82900006 5851219
0.050529528 -0.082110479 0.82900006 6054996
0.085268572 -0.082110479 0.82900006 5332299
0.10737525 -0.082110479 0.82900006 9060429
0.11684953 -0.082110479 0.82900006 6836821
0.14843048 -0.082110479 0.82900006 5068613
0.037897147 -0.078952387 0.82900006 6835814
-0.060003813 0.047371428 0.82900006 3744868
-0.056845717 0.047371428 0.82900006 4856931
-0.053687625 0.047371428 0.82900006 5389423
-0.050529528 0.047371428 0.82900006 4663914
-0.047371428 0.047371428 0.82900006 4464237
-0.044213336 0.047371428 0.82900006 5976948
-0.037897147 0.047371428 0.82900006 3485028
-0.025264764 0.047371428 0.82900006 4601456
-0.022106668 0.047371428 0.82900006 3947110
-0.018948574 0.047371428 0.82900006 5258354
-0.015790477 0.047371428 0.82900006 5324153
-0.012632382 0.047371428 0.82900006 6111366
-0.0094742868 0.047371428 0.82900006 5784957
-0.0063161911 0.047371428 0.82900006 6441335
-0.12000763 0.050529528 0.82900006 8743585
-0.11684953 0.050529528 0.82900006 8350365
-0.11369143 0.050529528 0.82900006 8153508
-0.11053333 0.050529528 0.82900006 7889303
-0.10105906 0.050529528 0.82900006 6772106
-0.097900957 0.050529528 0.82900006 6050693
-0.094742857 0.050529528 0.82900006 6443650
-0.078952387 0.050529528 0.82900006 4206182
-0.13895619 0.053687625 0.82900006 11570621
-0.13579811 0.053687625 0.82900006 10717878
-0.14527239 0.13895619 0.82900006 4398164
-0.14527239 0.1421143 0.82900006 5120843
-0.1421143 0.1421143 0.82900006 5782377
-0.13895619 0.1421143 0.82900006 3815261
-0.14527239 0.14527239 0.82900006 5644377
-0.1421143 0.14527239 0.82900006 5848165
-0.14843048 0.14843048 0.82900006 5586046
-0.15158859 0.15474667 0.82900006 16711422
-0.15158859 0.15790477 0.82900006 16711422
-0.14843048 0.16106287 0.82900006 13876983
-0.14527239 0.16106287 0.82900006 3473731
-0.1421143 0.16106287 0.82900006 5450834
-0.1421143 0.16422096 0.82900006 5189204
-0.13895619 0.16422096 0.82900006 3681365
-0.13579811 0.16422096 0.82900006 4074574
-0.13264 0.16422096 0.82900006 3680076
-0.12948191 0.16422096 0.82900006 3418693
-0.12632382 0.16737907 0.82900006 3089210
-0.12316572 0.16737907 0.82900006 2039600
-0.11369143 0.16737907 0.82900006 1381696
-0.12316572 0.17053714 0.82900006 3677241
-0.12000763 0.17053714 0.82900006 2758207
-0.11684953 0.17053714 0.82900006 2430001
-0.11369143 0.17053714 0.82900006 2037812
-0.11053333 0.17053714 0.82900006 2429233
-0.10737525 0.17053714 0.82900006 2101316
-0.10421715 0.17053714 0.82900006 1969458
-0.10105906 0.17053714 0.82900006 1183534
-0.097900957 0.17053714 0.82900006 1642544
-0.097900957 0.17369524 0.82900006 3279665
-0.094742857 0.17369524 0.82900006 2101284
-0.091584772 0.17369524 0.82900006 1379377
-0.088426672 0.17685334 0.82900006 1967907
-0.085268572 0.17685334 0.82900006 1772060
-0.082110479 0.17685334 0.82900006 656918
-0.078952387 0.17685334 0.82900006 1705747
-0.075794294 0.17685334 0.82900006 1377558
-0.072636195 0.17685334 0.82900006 330255
0.18044572 -0.088640004 0.83100003 4741188
0.18361144 -0.088640004 0.83100003 4806979
0.19310857 -0.088640004 0.83100003 9649477
0.14878859 -0.085474283 0.83100003 5395271
0.15195429 -0.085474283 0.83100003 6641230
0.16145143 -0.085474283 0.83100003 5058649
0.16778287 -0.085474283 0.83100003 4339012
0.17094857 -0.085474283 0.83100003 4869191
0.034822859 -0.082308576 0.83100003 8601440
0.037988573 -0.082308576 0.83100003 6047583
0.047485713 -0.082308576 0.83100003 6114396
0.053817146 -0.082308576 0.83100003 5923909
0.056982856 -0.082308576 0.83100003 5727062
0.060148574 -0.082308576 0.83100003 5923160
0.066480003 -0.082308576 0.83100003 5851995
0.091805719 -0.082308576 0.83100003 6637132
0.10446857 -0.082308576 0.83100003 9057105
0.11080001 -0.082308576 0.83100003 8473420
0.11396571 -0.082308576 0.83100003 5721672
0.12346286 -0.082308576 0.83100003 6247763
-0.028491428 0.044320002 0.83100003 5127037
-0.0063314289 0.044320002 0.83100003 5719934
-0.0031657144 0.044320002 0.83100003 5917830
0 0.044320002 0.83100003 6641286
0.0031657144 0.044320002 0.83100003 7231885
-0.094971426 0.047485713 0.83100003 6508938
-0.091805719 0.047485713 0.83100003 6114432
-0.072811432 0.047485713 0.83100003 4076141
-0.069645718 0.047485713 0.83100003 3879015
-0.066480003 0.047485713 0.83100003 3484769
-0.063314289 0.047485713 0.83100003 3287397
-0.041154288 0.047485713 0.83100003 6376585
-0.10763429 0.050651431 0.83100003 7363728
-0.10446857 0.050651431 0.83100003 7035531
-0.15195429 0.13929144 0.83100003 16711422
-0.14878859 0.13929144 0.83100003 16703998
-0.14878859 0.14245714 0.83100003 13139938
-0.14878859 0.14562286 0.83100003 8150732
-0.14562286 0.16461715 0.83100003 1704266
-0.13612571 0.16778287 0.83100003 3941967
-0.13296001 0.16778287 0.83100003 3614285
-0.1297943 0.16778287 0.83100003 3482691
-0.1297943 0.17094857 0.83100003 3481417
-0.12662858 0.17094857 0.83100003 2958142
-0.12662858 0.17411429 0.83100003 1581879
-0.11713143 0.17411429 0.83100003 2364210
-0.11396571 0.17411429 0.83100003 2234175
-0.11080001 0.17411429 0.83100003 2298161
-0.10763429 0.17411429 0.83100003 1313070
-0.10446857 0.17411429 0.83100003 1969196
-0.10130286 0.17411429 0.83100003 659482
-0.094971426 0.17728001 0.83100003 1968403
-0.091805719 0.17728001 0.83100003 1378342
0.17453334 -0.088853337 0.83300006 5068866
0.17770667 -0.088853337 0.83300006 4741187
0.18722668 -0.088853337 0.83300006 7950403
0.063466676 -0.082506672 0.83300006 6250839
0.082506672 -0.082506672 0.83300006 5594955
0.095200002 -0.082506672 0.83300006 7092047
0.098373339 -0.082506672 0.83300006 7615046
0.10154667 -0.082506672 0.83300006 9578833
0.01904 0.041253336 0.83300006 6312577
-0.044426668 0.044426668 0.83300006 4533098
-0.038079999 0.044426668 0.83300006 4470896
-0.03490667 0.044426668 0.83300006 4732013
-0.031733338 0.044426668 0.83300006 4929394
-0.025386669 0.044426668 0.83300006 4470640
-0.022213334 0.044426668 0.83300006 4404588
-0.01904 0.044426668 0.83300006 4864636
-0.015866669 0.044426668 0.83300006 3946867
-0.012693334 0.044426668 0.83300006 5062777
-0.0095199998 0.044426668 0.83300006 5457788
0.0095199998 0.044426668 0.83300006 7232140
0.012693334 0.044426668 0.83300006 6903431
0.015866669 0.044426668 0.83300006 6641030
-0.088853337 0.047600001 0.83300006 5851518
-0.08568 0.047600001 0.83300006 5522813
-0.076159999 0.047600001 0.83300006 4991858
-0.13645335 0.050773337 0.83300006 10715058
-0.12376001 0.050773337 0.83300006 9007780
-0.14280002 0.16818668 0.83300006 5383490
-0.13962668 0.16818668 0.83300006 4467024
-0.13645335 0.17136 0.83300006 4333652
-0.13328001 0.17136 0.83300006 3677006
-0.13328001 0.17453334 0.83300006 3611979
-0.13010667 0.17453334 0.83300006 2957632
-0.12376001 0.17453334 0.83300006 2497841
-0.12058668 0.17453334 0.83300006 2234161
0.17177144 -0.089066669 0.83500004 4738369
0.19085714 -0.089066669 0.83500004 9649998
0.14632381 -0.085885718 0.83500004 5198408
0.16540954 -0.085885718 0.83500004 4075348
0.031809524 -0.082704768 0.83500004 11226722
0.12087619 -0.082704768 0.83500004 6640468
-0.006361905 0.041352384 0.83500004 5851263
-0.0031809525 0.041352384 0.83500004 6245758
0.015904762 0.041352384 0.83500004 7755650
-0.069980957 0.044533335 0.83500004 3485799
-0.05089524 0.044533335 0.83500004 3811429
-0.047714286 0.044533335 0.83500004 3810917
-0.041352384 0.044533335 0.83500004 5061748
0.006361905 0.044533335 0.83500004 7953541
-0.10815238 0.047714286 0.83500004 7297678
-0.10497143 0.047714286 0.83500004 6969737
-0.10179048 0.047714286 0.83500004 6771846
-0.098609529 0.047714286 0.83500004 6247293
-0.082704768 0.047714286 0.83500004 5127031
-0.079523809 0.047714286 0.83500004 4730480
-0.14314286 0.05089524 0.83500004 16711422
-0.1336 0.05089524 0.83500004 10454706
-0.13041905 0.05089524 0.83500004 10189231
-0.12723809 0.05089524 0.83500004 9664171
-0.14950477 0.16859047 0.83500004 16709886
-0.14632381 0.16859047 0.83500004 1973837
-0.14314286 0.17177144 0.83500004 4856129
-0.13996191 0.17177144 0.83500004 4402005
-0.13678096 0.17495239 0.83500004 4202317
0.035074286 -0.086091429 0.83700001 9127007
0.041451432 -0.086091429 0.83700001 6176866
0.12754285 -0.086091429 0.83700001 6241606
0.13073143 -0.086091429 0.83700001 5452086
0.14348571 -0.086091429 0.83700001 5262407
0.15942858 -0.086091429 0.83700001 5191767
0.070148572 -0.082902864 0.83700001 6112356
-0.041451432 0.041451432 0.83700001 4075367
-0.038262859 0.041451432 0.83700001 4665446
-0.028697142 0.041451432 0.83700001 5650286
-0.0095657147 0.041451432 0.83700001 5719416
0 0.041451432 0.83700001 6839940
0.0031885714 0.041451432 0.83700001 7362955
0.0095657147 0.041451432 0.83700001 7101077
0.012754286 0.041451432 0.83700001 7100285
-0.073337138 0.044640001 0.83700001 3486568
-0.06696 0.044640001 0.83700001 3550050
-0.063771427 0.044640001 0.83700001 3286378
-0.057394285 0.044640001 0.83700001 3287394
-0.054205716 0.044640001 0.83700001 2632297
-0.11797714 0.047828574 0.83700001 8219543
-0.11478857 0.047828574 0.83700001 7956628
-0.14029714 0.051017143 0.83700001 11569381
-0.14986286 0.17218286 0.83700001 16711422
-0.14667428 0.17218286 0.83700001 4992671
-0.14667428 0.17537142 0.83700001 5847713
-0.14348571 0.17537142 0.83700001 3673890
-0.14029714 0.17537142 0.83700001 3679564
0.19496763 -0.092689529 0.83900005 8599338
0.19816381 -0.092689529 0.83900005 6768462
0.14702477 -0.089493334 0.83900005 5197119
0.028765716 -0.086297147 0.83900005 11881058
0.031961907 -0.086297147 0.83900005 11815252
0.038354289 -0.086297147 0.83900005 5851232
0.057531431 -0.086297147 0.83900005 5595732
0.063923813 -0.086297147 0.83900005 6183765
0.067120008 -0.086297147 0.83900005 5262683
0.1374362 -0.086297147 0.83900005 3747669
0.14063238 -0.086297147 0.83900005 4537680
0.028765716 -0.083100952 0.83900005 11812948
0.073512383 -0.083100952 0.83900005 6177630
0.076708578 -0.083100952 0.83900005 5392724
0.079904765 -0.083100952 0.83900005 6249318
0.019177144 0.038354289 0.83900005 5787777
-0.035158094 0.041550476 0.83900005 5124958
-0.031961907 0.041550476 0.83900005 5061483
-0.025569525 0.041550476 0.83900005 4077159
-0.022373334 0.041550476 0.83900005 3815015
-0.019177144 0.041550476 0.83900005 4471152
-0.015980953 0.041550476 0.83900005 5258353
-0.012784762 0.041550476 0.83900005 5258612
0.0063923812 0.041550476 0.83900005 7363465
-0.076708578 0.044746667 0.83900005 3616875
-0.060727622 0.044746667 0.83900005 3483492
-0.1374362 0.047942862 0.83900005 9797540
-0.13424002 0.047942862 0.83900005 10650294
-0.12145524 0.047942862 0.83900005 8678559
-0.11186668 0.047942862 0.83900005 7757203
0.17941333 -0.092910476 0.84100002 5002563
0.18261714 -0.092910476 0.84100002 3888702
0.18902476 -0.092910476 0.84100002 9456195
0.19222859 -0.092910476 0.84100002 9582650
0.14417143 -0.089706667 0.84100002 5851198
0.16980191 -0.089706667 0.84100002 4864078
0.048057146 -0.086502858 0.84100002 6176863
0.06087238 -0.086502858 0.84100002 5005904
0.099318095 -0.086502858 0.84100002 10564183
0.10572571 -0.086502858 0.84100002 9581381
0.11533715 -0.086502858 0.84100002 9387569
0.11854095 -0.086502858 0.84100002 10044484
0.13456 -0.086502858 0.84100002 4730188
0.0096114287 0.038445715 0.84100002 7232904
0.012815238 0.038445715 0.84100002 7296649
0.016019046 0.038445715 0.84100002 6641796
-0.048057146 0.041649524 0.84100002 3483489
-0.044853333 0.041649524 0.84100002 2370400
-0.092910476 0.044853333 0.84100002 6309504
-0.083299048 0.044853333 0.84100002 4865140
-0.080095239 0.044853333 0.84100002 4142207
-0.14096762 0.048057146 0.84100002 16566270
-0.13135618 0.048057146 0.84100002 10253991
-0.12815237 0.048057146 0.84100002 9663913
0.14451429 -0.093131438 0.84300005 8792628
0.14772573 -0.093131438 0.84300005 8530718
0.17662857 -0.093131438 0.84300005 3822137
0.18626288 -0.093131438 0.84300005 5264707
0.13809143 -0.089920007 0.84300005 8071757
0.14130287 -0.089920007 0.84300005 7616348
0.15093715 -0.089920007 0.84300005 4738621
0.15414859 -0.089920007 0.84300005 5394746
0.15736 -0.089920007 0.84300005 5586236
0.16057143 -0.089920007 0.84300005 4010319
0.16378286 -0.089920007 0.84300005 5452132
0.16699429 -0.089920007 0.84300005 5189202
0.051382858 -0.086708575 0.84300005 5923670
0.070651434 -0.086708575 0.84300005 4276568
0.073862866 -0.086708575 0.84300005 5782881
0.077074297 -0.086708575 0.84300005 6570077
0.080285713 -0.086708575 0.84300005 7165270
0.083497144 -0.086708575 0.84300005 8671033
0.096342862 -0.086708575 0.84300005 10172228
0.10276572 -0.086708575 0.84300005 9973064
0.10918858 -0.086708575 0.84300005 9581886
0.1124 -0.086708575 0.84300005 9125187
0.12203429 -0.086708575 0.84300005 9585472
0.12524572 -0.086708575 0.84300005 6899263
-0.0064228573 0.038537148 0.84300005 5917306
-0.0032114286 0.038537148 0.84300005 6179714
-0.080285713 0.041748572 0.84300005 4338541
-0.077074297 0.041748572 0.84300005 3617385
-0.073862866 0.041748572 0.84300005 3551589
-0.070651434 0.041748572 0.84300005 3092327
-0.067440003 0.041748572 0.84300005 3287137
-0.064228572 0.041748572 0.84300005 3156064
-0.05459429 0.041748572 0.84300005 4925788
-0.051382858 0.041748572 0.84300005 3615325
-0.099554293 0.044960003 0.84300005 5984128
-0.096342862 0.044960003 0.84300005 6245251
-0.089920007 0.044960003 0.84300005 6048126
-0.086708575 0.044960003 0.84300005 5587320
-0.12524572 0.048171431 0.84300005 9007520
0.064380959 -0.090133332 0.84500003 7426921
0.067600004 -0.090133332 0.84500003 8603481
0.077257141 -0.090133332 0.84500003 10501969
0.099790484 -0.090133332 0.84500003 10040640
0.12876192 -0.090133332 0.84500003 9252665
0.13198096 -0.090133332 0.84500003 8990266
0.13520001 -0.090133332 0.84500003 8400449
0.045066666 -0.086914286 0.84500003 6241121
0.05472381 -0.086914286 0.84500003 5202770
0.086914286 -0.086914286 0.84500003 9783640
0.093352385 -0.086914286 0.84500003 10042684
-0.038628571 0.038628571 0.84500003 4728680
-0.032190479 0.038628571 0.84500003 3620725
-0.0096571427 0.038628571 0.84500003 5456503
0 0.038628571 0.84500003 6969479
0.0032190478 0.038628571 0.84500003 7428233
0.0064380956 0.038628571 0.84500003 7297405
-0.061161906 0.04184762 0.84500003 3483483
-0.05794286 0.04184762 0.84500003 3483221
-0.1416381 0.045066666 0.84500003 16711422
-0.11588572 0.045066666 0.84500003 7758479
-0.11266667 0.045066666 0.84500003 7166350
-0.10944762 0.045066666 0.84500003 6969993
-0.10622857 0.045066666 0.84500003 6641542
-0.10300953 0.045066666 0.84500003 6246273
0.13891047 -0.093683809 0.84800005 8594730
0.14214097 -0.093683809 0.84800005 8465210
0.17121525 -0.093683809 0.84800005 4403788
0.17444573 -0.093683809 0.84800005 4278605
0.032304764 -0.090453334 0.84800005 11551045
0.041996192 -0.090453334 0.84800005 6572135
0.058148574 -0.090453334 0.84800005 6250323
0.061379053 -0.090453334 0.84800005 6446396
0.071070485 -0.090453334 0.84800005 9781601
0.07430096 -0.090453334 0.84800005 10369876
0.080761909 -0.090453334 0.84800005 10698824
0.083992384 -0.090453334 0.84800005 9714757
0.10337524 -0.090453334 0.84800005 9908790
0.10660572 -0.090453334 0.84800005 9971015
0.10983619 -0.090453334 0.84800005 9448773
0.12275811 -0.090453334 0.84800005 9251640
0.12598857 -0.090453334 0.84800005 8729393
0.090453334 -0.087222867 0.84800005 10699818
0.019382859 0.029074287 0.84800005 4669561
0.016152382 0.035535242 0.84800005 7625342
-0.061379053 0.038765717 0.84800005 3940185
-0.058148574 0.038765717 0.84800005 3087193
-0.051687621 0.038765717 0.84800005 3220063
-0.048457146 0.038765717 0.84800005 3219547
-0.045226667 0.038765717 0.84800005 3023709
-0.041996192 0.038765717 0.84800005 3679839
-0.035535242 0.038765717 0.84800005 5059688
-0.029074287 0.038765717 0.84800005 4733034
-0.022613334 0.038765717 0.84800005 2898023
-0.016152382 0.038765717 0.84800005 5846872
-0.012921905 0.038765717 0.84800005 4865135
-0.10014477 0.041996192 0.84800005 5458811
-0.090453334 0.041996192 0.84800005 5980802
-0.087222867 0.041996192 0.84800005 5522548
-0.083992384 0.041996192 0.84800005 4799594
-0.13568 0.045226667 0.84800005 10321082
-0.13244952 0.045226667 0.84800005 10059689
-0.12921906 0.045226667 0.84800005 9271475
-0.12275811 0.045226667 0.84800005 9530781
-0.11952762 0.045226667 0.84800005 8218778
0.19752382 -0.097142853 0.85000002 7811652
0.13600001 -0.093904763 0.85000002 8790837
0.15542859 -0.093904763 0.85000002 8075317
0.16190477 -0.093904763 0.85000002 6170945
0.16514286 -0.093904763 0.85000002 5644617
0.16838096 -0.093904763 0.85000002 5120559
0.03561905 -0.090666667 0.85000002 10244697
0.045333333 -0.090666667 0.85000002 6506605
0.048571426 -0.090666667 0.85000002 6507363
0.051809523 -0.090666667 0.85000002 6053986
0.090666667 -0.090666667 0.85000002 10041148
0.093904763 -0.090666667 0.85000002 9058107
0.097142853 -0.090666667 0.85000002 9845312
0.11980952 -0.090666667 0.85000002 9383232
-0.064761907 0.038857147 0.85000002 3155801
-0.05504762 0.038857147 0.85000002 2696040
-0.025904762 0.038857147 0.85000002 3880542
-0.019428574 0.038857147 0.85000002 4536172
-0.13276191 0.04209524 0.85000002 9665190
-0.11009524 0.04209524 0.85000002 6576777
-0.10685714 0.04209524 0.85000002 6641026
-0.097142853 0.04209524 0.85000002 5983867
-0.12628572 0.045333333 0.85000002 9007266
0.19149715 -0.097371429 0.85200006 9452099
0.19474286 -0.097371429 0.85200006 10235957
0.1330743 -0.094125718 0.85200006 8988469
0.15254858 -0.094125718 0.85200006 8073265
0.15904 -0.094125718 0.85200006 7222330
0.038948573 -0.090879999 0.85200006 6376290
0.055177148 -0.090879999 0.85200006 5988693
0.087634288 -0.090879999 0.85200006 9910092
0.11360001 -0.090879999 0.85200006 9121342
0.11684573 -0.090879999 0.85200006 9186870
0.016228572 0.029211432 0.85200006 7229824
0.016228572 0.032457143 0.85200006 7492477
0.012982858 0.035702858 0.85200006 8084883
-0.084388576 0.038948573 0.85200006 5060710
-0.081142858 0.038948573 0.85200006 4468329
-0.077897146 0.038948573 0.85200006 3812453
-0.074651428 0.038948573 0.85200006 3353188
-0.071405716 0.038948573 0.85200006 3352412
-0.068160005 0.038948573 0.85200006 2106714
-0.13956572 0.042194288 0.85200006 12029685
-0.12982857 0.042194288 0.85200006 9272229
-0.12658286 0.042194288 0.85200006 8550047
-0.12333716 0.042194288 0.85200006 8286873
-0.11684573 0.042194288 0.85200006 7299470
-0.11360001 0.042194288 0.85200006 6771339
-0.10386287 0.042194288 0.85200006 5983355
-0.094125718 0.042194288 0.85200006 5915769
-0.13956572 0.04544 0.85200006 10189512
0.16917333 -0.097600006 0.85400003 8464699
0.17242667 -0.097600006 0.85400003 8335434
0.17568 -0.097600006 0.85400003 8469576
0.18218666 -0.097600006 0.85400003 5919038
0.18869333 -0.097600006 0.85400003 5721667
0.071573332 -0.094346665 0.85400003 10697294
0.074826665 -0.094346665 0.85400003 10303559
0.10085334 -0.094346665 0.85400003 10372168
0.12362666 -0.094346665 0.85400003 8924209
0.12688001 -0.094346665 0.85400003 8924172
0.13013333 -0.094346665 0.85400003 9644330
0.013013334 0.032533333 0.85400003 7430279
-0.061813332 0.035786666 0.85400003 3153237
-0.058560003 0.035786666 0.85400003 3023442
-0.055306669 0.035786666 0.85400003 2891858
-0.052053336 0.035786666 0.85400003 2957138
-0.048800003 0.035786666 0.85400003 2891346
-0.039039999 0.035786666 0.85400003 3874138
-0.035786666 0.035786666 0.85400003 5783390
-0.032533333 0.035786666 0.85400003 4864876
-0.029280001 0.035786666 0.85400003 5322346
-0.022773333 0.035786666 0.85400003 4274276
-0.01952 0.035786666 0.85400003 4798055
-0.016266666 0.035786666 0.85400003 5388136
-0.0032533335 0.035786666 0.85400003 6181245
0 0.035786666 0.85400003 6905220
0.0032533335 0.035786666 0.85400003 7232649
0.006506667 0.035786666 0.85400003 7363717
0.0097599998 0.035786666 0.85400003 7431560
-0.13013333 0.039039999 0.85400003 9205153
-0.12688001 0.039039999 0.85400003 8680086
-0.12362666 0.039039999 0.85400003 8417677
-0.11712001 0.039039999 0.85400003 7430289
-0.11386667 0.039039999 0.85400003 6903430
-0.11061334 0.039039999 0.85400003 6575748
-0.10736001 0.039039999 0.85400003 5984123
-0.10085334 0.039039999 0.85400003 5721207
-0.097600006 0.039039999 0.85400003 6375034
-0.091093332 0.039039999 0.85400003 5717879
-0.087839998 0.039039999 0.85400003 5455211
-0.13664 0.042293333 0.85400003 10319273
-0.12037334 0.042293333 0.85400003 7957141
0.19239621 -0.10108953 0.85600007 9648444
0.1989181 -0.10108953 0.85600007 6500395
0.15652573 -0.097828582 0.85600007 8989996
0.15978669 -0.097828582 0.85600007 8463661
0.16304763 -0.097828582 0.85600007 8791333
0.16630858 -0.097828582 0.85600007 9052986
0.17935239 -0.097828582 0.85600007 6440755
0.1858743 -0.097828582 0.85600007 5525572
0.065219052 -0.094567627 0.85600007 10502478
0.068480007 -0.094567627 0.85600007 11025225
0.10435048 -0.094567627 0.85600007 11492165
0.10761144 -0.094567627 0.85600007 11950390
0.013043811 0.029348573 0.85600007 7495315
0.0065219053 0.032609526 0.85600007 8019845
0.0097828582 0.032609526 0.85600007 7626630
-0.068480007 0.035870478 0.85600007 2893650
-0.065219052 0.035870478 0.85600007 2957912
-0.045653336 0.035870478 0.85600007 2760782
-0.042392384 0.035870478 0.85600007 2693716
-0.026087621 0.035870478 0.85600007 4339296
-0.013043811 0.035870478 0.85600007 5323120
-0.0097828582 0.035870478 0.85600007 5457524
-0.0065219053 0.035870478 0.85600007 5655927
-0.14022096 0.039131433 0.85600007 16709630
-0.12065525 0.039131433 0.85600007 8087698
-0.10435048 0.039131433 0.85600007 5655659
-0.094567627 0.039131433 0.85600007 5980279
0.16708572 -0.1015619 0.86000001 8726597
0.17036191 -0.1015619 0.86000001 8530746
0.18674286 -0.1015619 0.86000001 5853495
0.18957716 -0.10132572 0.85800004 6507587
0.1961143 -0.10132572 0.85800004 9582132
0.12449524 -0.09828572 0.86000001 9252405
0.13759999 -0.09828572 0.86000001 8922442
0.15398096 -0.09828572 0.86000001 8594744
0.039314285 -0.095009528 0.86000001 6440033
0.042590477 -0.095009528 0.86000001 6966627
0.055695236 -0.095009528 0.86000001 9589840
0.07862857 -0.095009528 0.86000001 10106192
0.081714287 -0.094788581 0.85800004 10107953
0.084982857 -0.094788581 0.85800004 9911873
0.088457145 -0.095009528 0.86000001 9976131
0.094788581 -0.094788581 0.85800004 9843519
0.098057151 -0.094788581 0.85800004 10105923
0.11139047 -0.095009528 0.86000001 11493431
0.11466667 -0.095009528 0.86000001 11033908
0.11766857 -0.094788581 0.85800004 9844024
0.12093715 -0.094788581 0.85800004 9381178
0.006552381 0.029485716 0.86000001 7822981
0.0098057147 0.029417142 0.85800004 7823494
-0.052419048 0.032761905 0.86000001 2365511
-0.04914286 0.032761905 0.86000001 2234695
-0.042590477 0.032761905 0.86000001 2233156
-0.036038093 0.032761905 0.86000001 4536660
-0.032761905 0.032761905 0.86000001 4864098
-0.029417142 0.032685712 0.85800004 4797793
-0.026209524 0.032761905 0.86000001 4469084
-0.022933332 0.032761905 0.86000001 4797530
-0.019657142 0.032761905 0.86000001 5059680
-0.016380953 0.032761905 0.86000001 5257572
-0.0098285712 0.032761905 0.86000001 5850738
-0.006552381 0.032761905 0.86000001 5721204
-0.0032761905 0.032761905 0.86000001 6247805
0 0.032761905 0.86000001 6839169
0.0032685716 0.032685712 0.85800004 7231623
-0.098057151 0.035954289 0.85800004 5718384
-0.075177148 0.035954289 0.85800004 3286619
-0.071908578 0.035954289 0.85800004 3482965
-0.12449524 0.036038093 0.86000001 8548498
-0.12121905 0.036038093 0.86000001 8218771
-0.11794286 0.036038093 0.86000001 7694218
-0.11466667 0.036038093 0.86000001 6903430
-0.11139047 0.036038093 0.86000001 6508413
-0.1015619 0.036038093 0.86000001 5587830
-0.095009528 0.036038093 0.86000001 5455982
-0.091733329 0.036038093 0.86000001 5258603
-0.088457145 0.036038093 0.86000001 5191786
-0.085180953 0.036038093 0.86000001 4600927
-0.081904761 0.036038093 0.86000001 4074588
-0.07862857 0.036038093 0.86000001 3485017
-0.13759999 0.039314285 0.86000001 8092857
-0.13401143 0.039222859 0.85800004 9795487
0.16419049 -0.1017981 0.86200005 8528427
0.17732573 -0.1017981 0.86200005 7684924
0.18389334 -0.1017981 0.86200005 5983296
0.11821715 -0.098514289 0.86200005 9585732
0.12150095 -0.098514289 0.86200005 9514051
0.12806857 -0.098514289 0.86200005 8793388
0.13135239 -0.098514289 0.86200005 8006958
0.13463619 -0.098514289 0.86200005 8923188
0.14120382 -0.098514289 0.86200005 8462644
0.15105523 -0.098514289 0.86200005 9642039
0.045973334 -0.095230483 0.86200005 6704226
0.049257144 -0.095230483 0.86200005 7360350
0.052540954 -0.095230483 0.86200005 8673363
0.059108574 -0.095230483 0.86200005 10113622
0.06239238 -0.095230483 0.86200005 10374221
0.091946669 -0.095230483 0.86200005 10041132
0.0032838096 0.029554287 0.86200005 7298948
-0.068960004 0.032838099 0.86200005 2761289
-0.065676197 0.032838099 0.86200005 2039886
-0.059108574 0.032838099 0.86200005 2432842
-0.055824768 0.032838099 0.86200005 2233923
-0.045973334 0.032838099 0.86200005 2234179
-0.039405718 0.032838099 0.86200005 3346252
-0.013135239 0.032838099 0.86200005 5324137
-0.14120382 0.036121905 0.86200005 16711422
-0.13463619 0.036121905 0.86200005 9271457
-0.12806857 0.036121905 0.86200005 8876468
-0.10836571 0.036121905 0.86200005 5786743
-0.10508191 0.036121905 0.86200005 5653109
0.16805714 -0.10544763 0.86500007 4466759
0.18782859 -0.10544763 0.86500007 4870209
0.19112383 -0.10544763 0.86500007 7817276
0.19441906 -0.10544763 0.86500007 9452088
0.16146667 -0.10215239 0.86500007 8529704
0.17464763 -0.10215239 0.86500007 8140347
0.18123811 -0.10215239 0.86500007 6309435
0.088971436 -0.098857149 0.86500007 10042185
0.098857149 -0.098857149 0.86500007 10367046
0.10215239 -0.098857149 0.86500007 10838592
0.10544763 -0.098857149 0.86500007 11562328
0.10874286 -0.098857149 0.86500007 11562301
0.1120381 -0.098857149 0.86500007 11234892
0.11533334 -0.098857149 0.86500007 11364663
0.14499047 -0.098857149 0.86500007 8660277
0.14828573 -0.098857149 0.86500007 8724283
-0.052723814 0.029657146 0.86500007 2103351
-0.036247618 0.029657146 0.86500007 4139854
-0.032952383 0.029657146 0.86500007 4666712
-0.029657146 0.029657146 0.86500007 4405080
-0.016476192 0.029657146 0.86500007 4997217
-0.013180953 0.029657146 0.86500007 5129572
-0.0098857153 0.029657146 0.86500007 5390694
-0.0065904767 0.029657146 0.86500007 5590637
-0.0032952384 0.029657146 0.86500007 6444148
0 0.029657146 0.86500007 6969473
-0.098857149 0.032952383 0.86500007 5128806
-0.095561914 0.032952383 0.86500007 5128285
-0.092266671 0.032952383 0.86500007 5126748
-0.072495237 0.032952383 0.86500007 3482185
-0.062609531 0.032952383 0.86500007 2825292
-0.1384 0.036247618 0.86500007 10586858
0.17174858 -0.10569143 0.86700004 4663625
0.18496001 -0.10569143 0.86700004 4936009
0.19817144 -0.10569143 0.86700004 8467020
0.15853715 -0.10238858 0.86700004 8399664
0.075965717 -0.099085718 0.86700004 10172748
0.095782861 -0.099085718 0.86700004 10172485
0.03633143 -0.095782861 0.86700004 11160662
-0.049542859 0.029725716 0.86700004 2363963
-0.046240002 0.029725716 0.86700004 987444
-0.026422858 0.029725716 0.86700004 4075092
-0.023120001 0.029725716 0.86700004 3551829
-0.019817144 0.029725716 0.86700004 4600409
-0.089177147 0.033028573 0.86700004 4535133
-0.085874289 0.033028573 0.86700004 3158104
-0.082571432 0.033028573 0.86700004 3811663
-0.079268575 0.033028573 0.86700004 3679315
-0.075965717 0.033028573 0.86700004 3350606
0.16552381 -0.10593524 0.86900002 5187899
0.1820762 -0.10593524 0.86900002 4870217
0.1125562 -0.10262477 0.86900002 11757375
0.11586667 -0.10262477 0.86900002 12281651
0.11917714 -0.10262477 0.86900002 9057086
0.12248762 -0.10262477 0.86900002 9382970
0.14566095 -0.10262477 0.86900002 8725311
0.14897142 -0.10262477 0.86900002 8793159
0.04965714 -0.09931428 0.86900002 10438992
0.05958857 -0.09931428 0.86900002 9848658
0.072830476 -0.09931428 0.86900002 10305359
0.079451434 -0.09931428 0.86900002 10107978
0.082761906 -0.09931428 0.86900002 10566972
-0.016552381 0.02648381 0.86900002 5389147
-0.013241905 0.02648381 0.86900002 5390429
-0.0066209524 0.02648381 0.86900002 5981550
-0.0033104762 0.02648381 0.86900002 6704755
0 0.02648381 0.86900002 7102585
0.0033104762 0.02648381 0.86900002 7756673
0.0066209524 0.02648381 0.86900002 8151688
0.0099314293 0.02648381 0.86900002 8021379
0.013241905 0.02648381 0.86900002 7429507
-0.069520004 0.029794285 0.86900002 2692930
-0.05958857 0.029794285 0.86900002 2692410
-0.056278098 0.029794285 0.86900002 1709377
-0.043036189 0.029794285 0.86900002 1774391
-0.039725717 0.029794285 0.86900002 2755138
-0.12248762 0.033104762 0.86900002 7825565
-0.11917714 0.033104762 0.86900002 7494786
-0.11586667 0.033104762 0.86900002 6902397
-0.1125562 0.033104762 0.86900002 6180213
-0.10924571 0.033104762 0.86900002 5917297
-0.10593524 0.033104762 0.86900002 5455986
-0.10262477 0.033104762 0.86900002 5324909
-0.13241905 0.036415238 0.86900002 9401758
0.16258667 -0.10617905 0.87100005 5910084
0.17585905 -0.10617905 0.87100005 4798788
0.17917715 -0.10617905 0.87100005 4609348
0.12608764 -0.10286096 0.87100005 10106415
0.12940572 -0.10286096 0.87100005 9187637
0.13272382 -0.10286096 0.87100005 8991288
0.13604191 -0.10286096 0.87100005 9513525
0.13936 -0.10286096 0.87100005 9317435
0.14267811 -0.10286096 0.87100005 8988217
0.15263239 -0.10286096 0.87100005 8792380
0.15595049 -0.10286096 0.87100005 8464708
0.039817143 -0.099542864 0.87100005 10703962
0.053089526 -0.099542864 0.87100005 11422550
0.066361912 -0.099542864 0.87100005 10241101
0.069679998 -0.099542864 0.87100005 10370895
0.086270481 -0.099542864 0.87100005 10238782
0.092906669 -0.099542864 0.87100005 10171990
0.033180956 -0.096224762 0.87100005 11158854
0.013272381 0.023226667 0.87100005 7365764
-0.053089526 0.026544763 0.87100005 2560550
-0.02986286 0.026544763 0.87100005 6042705
-0.023226667 0.026544763 0.87100005 4338767
-0.019908572 0.026544763 0.87100005 4992076
-0.0099542858 0.026544763 0.87100005 4736612
-0.089588575 0.02986286 0.87100005 4140630
-0.086270481 0.02986286 0.87100005 3746640
-0.082952388 0.02986286 0.87100005 3875403
-0.079634286 0.02986286 0.87100005 3415630
-0.076316193 0.02986286 0.87100005 3024716
-0.072998099 0.02986286 0.87100005 2955847
-0.066361912 0.02986286 0.87100005 2890051
-0.063043818 0.02986286 0.87100005 3675463
0.16295999 -0.10974857 0.87300003 4859709
0.18956572 -0.10974857 0.87300003 4345151
0.14300571 -0.10642286 0.87300003 8792916
0.14633143 -0.10642286 0.87300003 8530491
0.15298286 -0.10642286 0.87300003 8270388
0.15963428 -0.10642286 0.87300003 7550519
0.07649143 -0.10309715 0.87300003 10437453
0.079817139 -0.10309715 0.87300003 9847111
0.083142862 -0.10309715 0.87300003 9846597
0.093120001 -0.10309715 0.87300003 10631495
0.096445717 -0.10309715 0.87300003 10106414
0.099771433 -0.10309715 0.87300003 10238533
0.10309715 -0.10309715 0.87300003 11235128
0.10642286 -0.10309715 0.87300003 12347464
0.10974857 -0.10309715 0.87300003 11691583
0.033257145 -0.099771433 0.87300003 11352406
0.043234285 -0.099771433 0.87300003 7621731
0.046560001 -0.099771433 0.87300003 9521760
0.056537144 -0.099771433 0.87300003 9783636
0.063188568 -0.099771433 0.87300003 10045008
0.013302857 0.019954285 0.87300003 7560840
0.0066514285 0.02328 0.87300003 8675474
0.0099771423 0.02328 0.87300003 8085897
-0.056537144 0.026605714 0.87300003 2103601
-0.049885716 0.026605714 0.87300003 3544109
-0.046560001 0.026605714 0.87300003 1840172
-0.036582857 0.026605714 0.87300003 3676744
-0.033257145 0.026605714 0.87300003 4798796
-0.026605714 0.026605714 0.87300003 4272204
-0.096445717 0.02993143 0.87300003 4730455
-0.093120001 0.02993143 0.87300003 4533333
-0.13968 0.033257145 0.87300003 16703742
0.17000002 -0.11000001 0.87500006 4467279
0.18333335 -0.11000001 0.87500006 3494972
0.18666668 -0.11000001 0.87500006 4281150
0.12333335 -0.10666667 0.87500006 9121611
0.13666669 -0.10666667 0.87500006 10101074
0.14000002 -0.10666667 0.87500006 9119299
0.15000001 -0.10666667 0.87500006 9513023
0.15666668 -0.10666667 0.87500006 8009277
0.050000004 -0.10333334 0.87500006 6572387
0.06333334 -0.10333334 0.87500006 8868947
0.073333338 -0.10333334 0.87500006 10831187
0.086666673 -0.10333334 0.87500006 9780275
0.090000004 -0.10333334 0.87500006 10041926
0.036666669 -0.10000001 0.87500006 11224931
-0.023333335 0.023333335 0.87500006 4534864
-0.020000001 0.023333335 0.87500006 4666968
-0.016666668 0.023333335 0.87500006 5258352
-0.013333334 0.023333335 0.87500006 5652576
-0.0066666668 0.023333335 0.87500006 6310766
0 0.023333335 0.87500006 7100279
0.0033333334 0.023333335 0.87500006 7823489
-0.086666673 0.026666667 0.87500006 3024939
-0.060000002 0.026666667 0.87500006 2364212
-0.043333337 0.026666667 0.87500006 2036017
-0.040000003 0.026666667 0.87500006 2755126
-0.11666667 0.030000001 0.87500006 6506363
-0.11333334 0.030000001 0.87500006 6113136
-0.11000001 0.030000001 0.87500006 5259881
-0.10666667 0.030000001 0.87500006 4995941
-0.10333334 0.030000001 0.87500006 4865890
-0.10000001 0.030000001 0.87500006 4800351
-0.13666669 0.033333335 0.87500006 8416644
-0.12666668 0.033333335 0.87500006 8351646
0.16054857 -0.11037715 0.87800002 4278075
0.18061715 -0.11037715 0.87800002 4543063
0.19399619 -0.11037715 0.87800002 8797246
0.19734095 -0.11037715 0.87800002 9122606
0.20403048 -0.11037715 0.87800002 6767171
0.12710096 -0.10703238 0.87800002 9319742
0.13044572 -0.10703238 0.87800002 9449530
0.13379048 -0.10703238 0.87800002 9447493
0.03344762 -0.10368762 0.87800002 12338271
0.040137142 -0.10368762 0.87800002 10177890
0.043481905 -0.10368762 0.87800002 6637672
0.046826664 -0.10368762 0.87800002 6769004
0.060205717 -0.10368762 0.87800002 8870486
-0.010034285 0.023413332 0.87800002 5653346
-0.0033447619 0.023413332 0.87800002 6639221
-0.090308577 0.026758095 0.87800002 3614280
-0.083619051 0.026758095 0.87800002 3284537
